# .PCD v0.7 - Point Cloud Data file format
VERSION 0.7
FIELDS x y z
SIZE 4 4 4
TYPE F F F
COUNT 1 1 1
WIDTH 1271
HEIGHT 1
VIEWPOINT 0 0 0 1 0 0 0
POINTS 1271
DATA ascii
0 0 -0.00012009533
0.0099999998 0 0.0076170312
0.0099999998 0.0099999998 0.0068428167
0 0.0099999998 -7.7793433e-05
0.02 0 0.011825422
0.02 0.0099999998 0.0078751221
0.029999999 0 0.010652256
0.029999999 0.0099999998 0.014834648
0.039999999 0 0.017686827
0.039999999 0.0099999998 0.021858694
0.050000001 0 0.022913231
0.050000001 0.0099999998 0.023930939
0.059999999 0 0.026682919
0.059999999 0.0099999998 0.023335328
0.07 0 0.031023325
0.07 0.0099999998 0.02586263
0.079999998 0 0.033985682
0.079999998 0.0099999998 0.030919414
0.090000004 0 0.035186931
0.090000004 0.0099999998 0.033000298
0.1 0 0.03304093
0.1 0.0099999998 0.035764422
0.11 0 0.038143326
0.11 0.0099999998 0.040606141
0.12 0 0.037240177
0.12 0.0099999998 0.040442277
0.13 0 0.044167399
0.13 0.0099999998 0.045029301
0.14 0 0.046654548
0.14 0.0099999998 0.043084476
0.15000001 0 0.04040673
0.15000001 0.0099999998 0.044143248
0.16 0 0.047092143
0.16 0.0099999998 0.04700755
0.17 0 0.045520592
0.17 0.0099999998 0.047058776
0.18000001 0 0.045810234
0.18000001 0.0099999998 0.046346355
0.19 0 0.045323577
0.19 0.0099999998 0.04392546
0.2 0 0.049740452
0.2 0.0099999998 0.044980835
0.20999999 0 0.047868181
0.20999999 0.0099999998 0.048335489
0.22 0 0.046528425
0.22 0.0099999998 0.047853086
0.23 0 0.047040723
0.23 0.0099999998 0.043270439
0.23999999 0 0.047447592
0.23999999 0.0099999998 0.045660965
0.25 0 0.042670686
0.25 0.0099999998 0.045468431
0.25999999 0 0.041581035
0.25999999 0.0099999998 0.040819906
0.27000001 0 0.043078262
0.27000001 0.0099999998 0.039704826
0.28 0 0.043171346
0.28 0.0099999998 0.042388085
0.28999999 0 0.04056428
0.28999999 0.0099999998 0.034556527
0.30000001 0 0.035658687
0.30000001 0.0099999998 0.036782954
0.31 0 0.030810796
0.31 0.0099999998 0.035430457
0.31999999 0 0.026127573
0.31999999 0.0099999998 0.027230671
0.33000001 0 0.026048731
0.33000001 0.0099999998 0.027641481
0.34 0 0.026994348
0.34 0.0099999998 0.022384737
0.34999999 0 0.020209234
0.34999999 0.0099999998 0.021487413
0.36000001 0 0.018179724
0.36000001 0.0099999998 0.016767928
0.37 0 0.014067916
0.37 0.0099999998 0.01034049
0.38 0 0.0049842633
0.38 0.0099999998 0.010625727
0.38999999 0 0.0073477956
0.38999999 0.0099999998 0.0060379701
0.40000001 0 0.0040494101
0.40000001 0.0099999998 -0.0012368746
0.0099999998 0.02 0.0021570134
0 0.02 0.0010557508
0.02 0.02 0.006920259
0.029999999 0.02 0.011335478
0.039999999 0.02 0.017393604
0.050000001 0.02 0.020259099
0.059999999 0.02 0.028557809
0.07 0.02 0.027759645
0.079999998 0.02 0.031936854
0.090000004 0.02 0.034622479
0.1 0.02 0.036633361
0.11 0.02 0.038447309
0.12 0.02 0.042488169
0.13 0.02 0.039372936
0.14 0.02 0.046440937
0.15000001 0.02 0.04578238
0.16 0.02 0.043122176
0.17 0.02 0.048426546
0.18000001 0.02 0.049131285
0.19 0.02 0.050516434
0.2 0.02 0.046372965
0.20999999 0.02 0.050380535
0.22 0.02 0.047293097
0.23 0.02 0.043279264
0.23999999 0.02 0.043868806
0.25 0.02 0.046268698
0.25999999 0.02 0.046756312
0.27000001 0.02 0.039334953
0.28 0.02 0.039777648
0.28999999 0.02 0.036750391
0.30000001 0.02 0.039649364
0.31 0.02 0.031682175
0.31999999 0.02 0.033476196
0.33000001 0.02 0.026652712
0.34 0.02 0.026288569
0.34999999 0.02 0.018658981
0.36000001 0.02 0.020612814
0.37 0.02 0.0092365518
0.38 0.02 0.010034819
0.38999999 0.02 0.0056876587
0.40000001 0.02 -0.0016414023
0.0099999998 0.029999999 0.0060643461
0 0.029999999 -0.0019329175
0.02 0.029999999 0.007317367
0.029999999 0.029999999 0.013585882
0.039999999 0.029999999 0.011972726
0.050000001 0.029999999 0.01714539
0.059999999 0.029999999 0.024645705
0.07 0.029999999 0.030137768
0.079999998 0.029999999 0.027514178
0.090000004 0.029999999 0.034831669
0.1 0.029999999 0.036878541
0.11 0.029999999 0.036886986
0.12 0.029999999 0.039952151
0.13 0.029999999 0.046083882
0.14 0.029999999 0.040369235
0.15000001 0.029999999 0.045369919
0.16 0.029999999 0.045836251
0.17 0.029999999 0.046850398
0.18000001 0.029999999 0.046754397
0.19 0.029999999 0.047664557
0.2 0.029999999 0.046710916
0.20999999 0.029999999 0.043714859
0.22 0.029999999 0.045598127
0.23 0.029999999 0.046675116
0.23999999 0.029999999 0.045938723
0.25 0.029999999 0.045617033
0.25999999 0.029999999 0.047612328
0.27000001 0.029999999 0.038392995
0.28 0.029999999 0.041360822
0.28999999 0.029999999 0.03833558
0.30000001 0.029999999 0.03581392
0.31 0.029999999 0.03208806
0.31999999 0.029999999 0.030558135
0.33000001 0.029999999 0.029262582
0.34 0.029999999 0.025587641
0.34999999 0.029999999 0.018096149
0.36000001 0.029999999 0.019424682
0.37 0.029999999 0.014141385
0.38 0.029999999 0.013178246
0.38999999 0.029999999 0.0026208924
0.40000001 0.029999999 -0.0014440835
0.0099999998 0.039999999 0.0048528742
0 0.039999999 -0.0035043736
0.02 0.039999999 0.011380078
0.029999999 0.039999999 0.012684419
0.039999999 0.039999999 0.016574057
0.050000001 0.039999999 0.020718168
0.059999999 0.039999999 0.024414111
0.07 0.039999999 0.02994889
0.079999998 0.039999999 0.030844973
0.090000004 0.039999999 0.032509021
0.1 0.039999999 0.037159242
0.11 0.039999999 0.035335045
0.12 0.039999999 0.041197248
0.13 0.039999999 0.04128826
0.14 0.039999999 0.047449131
0.15000001 0.039999999 0.043112092
0.16 0.039999999 0.046268333
0.17 0.039999999 0.046441961
0.18000001 0.039999999 0.044604599
0.19 0.039999999 0.048852831
0.2 0.039999999 0.042761032
0.20999999 0.039999999 0.043209556
0.22 0.039999999 0.04414697
0.23 0.039999999 0.048817478
0.23999999 0.039999999 0.047389086
0.25 0.039999999 0.041906949
0.25999999 0.039999999 0.042810887
0.27000001 0.039999999 0.040214445
0.28 0.039999999 0.040466484
0.28999999 0.039999999 0.042266611
0.30000001 0.039999999 0.034136564
0.31 0.039999999 0.037371915
0.31999999 0.039999999 0.02988264
0.33000001 0.039999999 0.026598023
0.34 0.039999999 0.025954472
0.34999999 0.039999999 0.022725737
0.36000001 0.039999999 0.018171852
0.37 0.039999999 0.010707445
0.38 0.039999999 0.0080071548
0.38999999 0.039999999 0.0031096726
0.40000001 0.039999999 -0.0010250155
0.0099999998 0.050000001 0.005697228
0 0.050000001 -0.001564173
0.02 0.050000001 0.011412871
0.029999999 0.050000001 0.013141023
0.039999999 0.050000001 0.018720733
0.050000001 0.050000001 0.02282525
0.059999999 0.050000001 0.025002897
0.07 0.050000001 0.027356734
0.079999998 0.050000001 0.029727928
0.090000004 0.050000001 0.031148126
0.1 0.050000001 0.035342861
0.11 0.050000001 0.038382929
0.12 0.050000001 0.039626583
0.13 0.050000001 0.042137064
0.14 0.050000001 0.043262873
0.15000001 0.050000001 0.045750372
0.16 0.050000001 0.044160146
0.17 0.050000001 0.045969412
0.18000001 0.050000001 0.047250286
0.19 0.050000001 0.046349607
0.2 0.050000001 0.047774483
0.20999999 0.050000001 0.043552876
0.22 0.050000001 0.047683313
0.23 0.050000001 0.047129877
0.23999999 0.050000001 0.045418773
0.25 0.050000001 0.043703843
0.25999999 0.050000001 0.042304415
0.27000001 0.050000001 0.038291708
0.28 0.050000001 0.042191435
0.28999999 0.050000001 0.039335467
0.30000001 0.050000001 0.033715528
0.31 0.050000001 0.030519806
0.31999999 0.050000001 0.030042686
0.33000001 0.050000001 0.029263532
0.34 0.050000001 0.02640051
0.34999999 0.050000001 0.022376684
0.36000001 0.050000001 0.019148309
0.37 0.050000001 0.017152132
0.38 0.050000001 0.005981165
0.38999999 0.050000001 0.0057846662
0.40000001 0.050000001 -0.00010860769
0.0099999998 0.059999999 0.0062791775
0 0.059999999 -0.0014977499
0.02 0.059999999 0.0093787638
0.029999999 0.059999999 0.016042586
0.039999999 0.059999999 0.015544226
0.050000001 0.059999999 0.019612353
0.059999999 0.059999999 0.025602056
0.07 0.059999999 0.026126809
0.079999998 0.059999999 0.03105565
0.090000004 0.059999999 0.032670528
0.1 0.059999999 0.038083252
0.11 0.059999999 0.038937271
0.12 0.059999999 0.03918599
0.13 0.059999999 0.040423878
0.14 0.059999999 0.042360634
0.15000001 0.059999999 0.049197447
0.16 0.059999999 0.045321904
0.17 0.059999999 0.045801077
0.18000001 0.059999999 0.046371091
0.19 0.059999999 0.050134409
0.2 0.059999999 0.04374918
0.20999999 0.059999999 0.049326722
0.22 0.059999999 0.045327596
0.23 0.059999999 0.045659497
0.23999999 0.059999999 0.046775959
0.25 0.059999999 0.042536817
0.25999999 0.059999999 0.04402183
0.27000001 0.059999999 0.041552171
0.28 0.059999999 0.037202384
0.28999999 0.059999999 0.038448535
0.30000001 0.059999999 0.037050676
0.31 0.059999999 0.034750056
0.31999999 0.059999999 0.029681221
0.33000001 0.059999999 0.027869582
0.34 0.059999999 0.025979856
0.34999999 0.059999999 0.022374362
0.36000001 0.059999999 0.016833579
0.37 0.059999999 0.011099022
0.38 0.059999999 0.0099349916
0.38999999 0.059999999 0.0054805866
0.40000001 0.059999999 0.0029967364
0.0099999998 0.07 0.0041370662
0 0.07 -0.0031076015
0.02 0.07 0.010258245
0.029999999 0.07 0.013439402
0.039999999 0.07 0.021669796
0.050000001 0.07 0.020573065
0.059999999 0.07 0.020007662
0.07 0.07 0.029361574
0.079999998 0.07 0.028015142
0.090000004 0.07 0.036104109
0.1 0.07 0.036697544
0.11 0.07 0.037375588
0.12 0.07 0.038039871
0.13 0.07 0.045415949
0.14 0.07 0.043789472
0.15000001 0.07 0.043431517
0.16 0.07 0.044031382
0.17 0.07 0.045845445
0.18000001 0.07 0.049278725
0.19 0.07 0.050923266
0.2 0.07 0.047267981
0.20999999 0.07 0.047956038
0.22 0.07 0.047412887
0.23 0.07 0.042908296
0.23999999 0.07 0.045701824
0.25 0.07 0.043413635
0.25999999 0.07 0.04231485
0.27000001 0.07 0.041399509
0.28 0.07 0.034218378
0.28999999 0.07 0.036594838
0.30000001 0.07 0.037402324
0.31 0.07 0.033715922
0.31999999 0.07 0.029781373
0.33000001 0.07 0.027220141
0.34 0.07 0.022575228
0.34999999 0.07 0.01991271
0.36000001 0.07 0.016446266
0.37 0.07 0.013270107
0.38 0.07 0.010565711
0.38999999 0.07 0.0048035667
0.40000001 0.07 -0.00015952262
0.0099999998 0.079999998 0.00680289
0 0.079999998 -0.0016710296
0.02 0.079999998 0.0098607456
0.029999999 0.079999998 0.014774453
0.039999999 0.079999998 0.01805084
0.050000001 0.079999998 0.022922911
0.059999999 0.079999998 0.027760265
0.07 0.079999998 0.027038591
0.079999998 0.079999998 0.031898305
0.090000004 0.079999998 0.034832936
0.1 0.079999998 0.035872359
0.11 0.079999998 0.041887805
0.12 0.079999998 0.038042769
0.13 0.079999998 0.040728997
0.14 0.079999998 0.043326192
0.15000001 0.079999998 0.044462122
0.16 0.079999998 0.044975583
0.17 0.079999998 0.045246821
0.18000001 0.079999998 0.048415333
0.19 0.079999998 0.04698097
0.2 0.079999998 0.045600068
0.20999999 0.079999998 0.050527453
0.22 0.079999998 0.048590474
0.23 0.079999998 0.049183913
0.23999999 0.079999998 0.045367654
0.25 0.079999998 0.048241369
0.25999999 0.079999998 0.045009751
0.27000001 0.079999998 0.038085058
0.28 0.079999998 0.037469383
0.28999999 0.079999998 0.039231185
0.30000001 0.079999998 0.035657518
0.31 0.079999998 0.033186711
0.31999999 0.079999998 0.032962725
0.33000001 0.079999998 0.031306237
0.34 0.079999998 0.025517682
0.34999999 0.079999998 0.021562152
0.36000001 0.079999998 0.022114122
0.37 0.079999998 0.013621002
0.38 0.079999998 0.0084886914
0.38999999 0.079999998 0.0036555505
0.40000001 0.079999998 -0.0014713391
0.0099999998 0.090000004 0.0031239358
0 0.090000004 0.00016339013
0.02 0.090000004 0.0056729689
0.029999999 0.090000004 0.011072583
0.039999999 0.090000004 0.018484665
0.050000001 0.090000004 0.023490055
0.059999999 0.090000004 0.027140416
0.07 0.090000004 0.032527585
0.079999998 0.090000004 0.028645227
0.090000004 0.090000004 0.036203403
0.1 0.090000004 0.036053255
0.11 0.090000004 0.037128359
0.12 0.090000004 0.039147239
0.13 0.090000004 0.043480504
0.14 0.090000004 0.044469897
0.15000001 0.090000004 0.040797364
0.16 0.090000004 0.047470544
0.17 0.090000004 0.047856696
0.18000001 0.090000004 0.046293493
0.19 0.090000004 0.045139246
0.2 0.090000004 0.045674421
0.20999999 0.090000004 0.044629533
0.22 0.090000004 0.046665728
0.23 0.090000004 0.045428902
0.23999999 0.090000004 0.04479726
0.25 0.090000004 0.04485245
0.25999999 0.090000004 0.042575747
0.27000001 0.090000004 0.038306866
0.28 0.090000004 0.038802583
0.28999999 0.090000004 0.03701723
0.30000001 0.090000004 0.032458238
0.31 0.090000004 0.03524569
0.31999999 0.090000004 0.026479894
0.33000001 0.090000004 0.028746111
0.34 0.090000004 0.024145594
0.34999999 0.090000004 0.020578986
0.36000001 0.090000004 0.018907573
0.37 0.090000004 0.013035293
0.38 0.090000004 0.0089361137
0.38999999 0.090000004 0.0031024879
0.40000001 0.090000004 0.0022515189
0.0099999998 0.1 0.0062185242
0 0.1 0.0019832377
0.02 0.1 0.010452298
0.029999999 0.1 0.015095232
0.039999999 0.1 0.019000769
0.050000001 0.1 0.02209569
0.059999999 0.1 0.02599846
0.07 0.1 0.026483651
0.079999998 0.1 0.030871877
0.090000004 0.1 0.03457509
0.1 0.1 0.03443893
0.11 0.1 0.038065452
0.12 0.1 0.039624978
0.13 0.1 0.044184104
0.14 0.1 0.044115372
0.15000001 0.1 0.046598665
0.16 0.1 0.046666488
0.17 0.1 0.048224699
0.18000001 0.1 0.046577163
0.19 0.1 0.047332082
0.2 0.1 0.045957282
0.20999999 0.1 0.047876924
0.22 0.1 0.052914705
0.23 0.1 0.046401404
0.23999999 0.1 0.045329958
0.25 0.1 0.046126232
0.25999999 0.1 0.04004316
0.27000001 0.1 0.043957714
0.28 0.1 0.038304858
0.28999999 0.1 0.039198935
0.30000001 0.1 0.036443088
0.31 0.1 0.033340286
0.31999999 0.1 0.029378628
0.33000001 0.1 0.028736481
0.34 0.1 0.026984332
0.34999999 0.1 0.022672774
0.36000001 0.1 0.020404443
0.37 0.1 0.010865179
0.38 0.1 0.0094283149
0.38999999 0.1 0.0021449425
0.40000001 0.1 0.000229271
0.0099999998 0.11 0.0033103179
0 0.11 0.0010832635
0.02 0.11 0.01195544
0.029999999 0.11 0.012692645
0.039999999 0.11 0.018859122
0.050000001 0.11 0.020612095
0.059999999 0.11 0.023218563
0.07 0.11 0.026427528
0.079999998 0.11 0.027911114
0.090000004 0.11 0.036515843
0.1 0.11 0.030995419
0.11 0.11 0.03548383
0.12 0.11 0.036030851
0.13 0.11 0.039015364
0.14 0.11 0.037586719
0.15000001 0.11 0.045614094
0.16 0.11 0.045502033
0.17 0.11 0.044144396
0.18000001 0.11 0.044164207
0.19 0.11 0.044465821
0.2 0.11 0.046656683
0.20999999 0.11 0.043057591
0.22 0.11 0.047579616
0.23 0.11 0.04602658
0.23999999 0.11 0.044736624
0.25 0.11 0.045714173
0.25999999 0.11 0.043861885
0.27000001 0.11 0.041011885
0.28 0.11 0.040061571
0.28999999 0.11 0.037797228
0.30000001 0.11 0.03463782
0.31 0.11 0.035697214
0.31999999 0.11 0.033217516
0.33000001 0.11 0.028046621
0.34 0.11 0.022681717
0.34999999 0.11 0.018961547
0.36000001 0.11 0.018114269
0.37 0.11 0.013113113
0.38 0.11 0.0077634081
0.38999999 0.11 0.0051096831
0.40000001 0.11 -0.0023693035
0.0099999998 0.12 0.0016614627
0 0.12 0.0006808411
0.02 0.12 0.0044822632
0.029999999 0.12 0.013226116
0.039999999 0.12 0.0156484
0.050000001 0.12 0.024369728
0.059999999 0.12 0.02748055
0.07 0.12 0.026677622
0.079999998 0.12 0.028879711
0.090000004 0.12 0.033041544
0.1 0.12 0.035257731
0.11 0.12 0.040834557
0.12 0.12 0.039303411
0.13 0.12 0.04411228
0.14 0.12 0.045644883
0.15000001 0.12 0.049449168
0.16 0.12 0.044662248
0.17 0.12 0.045255695
0.18000001 0.12 0.050117608
0.19 0.12 0.045625038
0.2 0.12 0.043582588
0.20999999 0.12 0.047275234
0.22 0.12 0.047766674
0.23 0.12 0.04548027
0.23999999 0.12 0.044719763
0.25 0.12 0.041683901
0.25999999 0.12 0.046616003
0.27000001 0.12 0.042104002
0.28 0.12 0.038904626
0.28999999 0.12 0.038867548
0.30000001 0.12 0.037558686
0.31 0.12 0.031377744
0.31999999 0.12 0.031263713
0.33000001 0.12 0.026937118
0.34 0.12 0.028036643
0.34999999 0.12 0.02162534
0.36000001 0.12 0.01536289
0.37 0.12 0.013420231
0.38 0.12 0.010287892
0.38999999 0.12 0.0090468163
0.40000001 0.12 7.9134938e-05
0.0099999998 0.13 0.007247102
0 0.13 0.0011431451
0.02 0.13 0.010407334
0.029999999 0.13 0.011902834
0.039999999 0.13 0.017290132
0.050000001 0.13 0.019991839
0.059999999 0.13 0.026148716
0.07 0.13 0.030982492
0.079999998 0.13 0.030769302
0.090000004 0.13 0.035583861
0.1 0.13 0.034496378
0.11 0.13 0.038382526
0.12 0.13 0.039647061
0.13 0.13 0.044961777
0.14 0.13 0.043758325
0.15000001 0.13 0.045945149
0.16 0.13 0.044738777
0.17 0.13 0.044939425
0.18000001 0.13 0.047555566
0.19 0.13 0.045464899
0.2 0.13 0.044490136
0.20999999 0.13 0.046497542
0.22 0.13 0.049964506
0.23 0.13 0.045421589
0.23999999 0.13 0.045862805
0.25 0.13 0.043222278
0.25999999 0.13 0.039069612
0.27000001 0.13 0.04170211
0.28 0.13 0.04338732
0.28999999 0.13 0.037400864
0.30000001 0.13 0.033589605
0.31 0.13 0.031492993
0.31999999 0.13 0.031541564
0.33000001 0.13 0.027061196
0.34 0.13 0.026702454
0.34999999 0.13 0.020755958
0.36000001 0.13 0.013441212
0.37 0.13 0.012763415
0.38 0.13 0.010813639
0.38999999 0.13 0.006898602
0.40000001 0.13 0.0025698692
0.0099999998 0.14 0.0069924323
0 0.14 0.0020014406
0.02 0.14 0.013177855
0.029999999 0.14 0.016711222
0.039999999 0.14 0.017963437
0.050000001 0.14 0.020355253
0.059999999 0.14 0.024175715
0.07 0.14 0.029307118
0.079999998 0.14 0.033229534
0.090000004 0.14 0.032979216
0.1 0.14 0.038915236
0.11 0.14 0.036614027
0.12 0.14 0.039069336
0.13 0.14 0.040927354
0.14 0.14 0.041846495
0.15000001 0.14 0.046149522
0.16 0.14 0.045046978
0.17 0.14 0.049909305
0.18000001 0.14 0.046753902
0.19 0.14 0.050834339
0.2 0.14 0.04235366
0.20999999 0.14 0.047825411
0.22 0.14 0.047333125
0.23 0.14 0.050076608
0.23999999 0.14 0.045944598
0.25 0.14 0.047968045
0.25999999 0.14 0.046955869
0.27000001 0.14 0.040460624
0.28 0.14 0.037618686
0.28999999 0.14 0.039780311
0.30000001 0.14 0.03425974
0.31 0.14 0.033160031
0.31999999 0.14 0.029670727
0.33000001 0.14 0.02810348
0.34 0.14 0.025928061
0.34999999 0.14 0.022731896
0.36000001 0.14 0.017883543
0.37 0.14 0.01174854
0.38 0.14 0.0076959343
0.38999999 0.14 0.0054302551
0.40000001 0.14 -0.0043686018
0.0099999998 0.15000001 0.001714112
0 0.15000001 -0.0023488894
0.02 0.15000001 0.0087338965
0.029999999 0.15000001 0.0146128
0.039999999 0.15000001 0.022341762
0.050000001 0.15000001 0.021299236
0.059999999 0.15000001 0.022599936
0.07 0.15000001 0.026994761
0.079999998 0.15000001 0.031729627
0.090000004 0.15000001 0.035518028
0.1 0.15000001 0.034971744
0.11 0.15000001 0.038054701
0.12 0.15000001 0.042371724
0.13 0.15000001 0.042148735
0.14 0.15000001 0.04333118
0.15000001 0.15000001 0.043747585
0.16 0.15000001 0.044651892
0.17 0.15000001 0.048322238
0.18000001 0.15000001 0.045702837
0.19 0.15000001 0.047007237
0.2 0.15000001 0.045145959
0.20999999 0.15000001 0.04830927
0.22 0.15000001 0.047264509
0.23 0.15000001 0.04708932
0.23999999 0.15000001 0.045367297
0.25 0.15000001 0.042925525
0.25999999 0.15000001 0.042999767
0.27000001 0.15000001 0.039133038
0.28 0.15000001 0.039322808
0.28999999 0.15000001 0.0426783
0.30000001 0.15000001 0.039234519
0.31 0.15000001 0.035209887
0.31999999 0.15000001 0.031689312
0.33000001 0.15000001 0.029554969
0.34 0.15000001 0.025514213
0.34999999 0.15000001 0.023170989
0.36000001 0.15000001 0.020023786
0.37 0.15000001 0.011599842
0.38 0.15000001 0.0090078106
0.38999999 0.15000001 0.0047913478
0.40000001 0.15000001 -0.0011102378
0.0099999998 0.16 0.00738989
0 0.16 -0.0019883672
0.02 0.16 0.010725416
0.029999999 0.16 0.011820805
0.039999999 0.16 0.015506905
0.050000001 0.16 0.022161888
0.059999999 0.16 0.023357535
0.07 0.16 0.02550526
0.079999998 0.16 0.03031827
0.090000004 0.16 0.03178487
0.1 0.16 0.037589129
0.11 0.16 0.042677067
0.12 0.16 0.036598094
0.13 0.16 0.043376263
0.14 0.16 0.044015262
0.15000001 0.16 0.042724609
0.16 0.16 0.047344465
0.17 0.16 0.044429481
0.18000001 0.16 0.043001659
0.19 0.16 0.044855151
0.2 0.16 0.048369922
0.20999999 0.16 0.047922399
0.22 0.16 0.048771467
0.23 0.16 0.047187775
0.23999999 0.16 0.04794186
0.25 0.16 0.040400095
0.25999999 0.16 0.042561386
0.27000001 0.16 0.040974848
0.28 0.16 0.039884232
0.28999999 0.16 0.040198289
0.30000001 0.16 0.034537047
0.31 0.16 0.033979245
0.31999999 0.16 0.02699185
0.33000001 0.16 0.026071144
0.34 0.16 0.026615502
0.34999999 0.16 0.017820561
0.36000001 0.16 0.020441951
0.37 0.16 0.012674153
0.38 0.16 0.010445325
0.38999999 0.16 0.0024930935
0.40000001 0.16 0.0015096173
0.0099999998 0.17 0.0073537719
0 0.17 -2.8210975e-06
0.02 0.17 0.0082963007
0.029999999 0.17 0.012171648
0.039999999 0.17 0.016100105
0.050000001 0.17 0.025256904
0.059999999 0.17 0.024075789
0.07 0.17 0.024683833
0.079999998 0.17 0.032710318
0.090000004 0.17 0.033524241
0.1 0.17 0.035178151
0.11 0.17 0.039097559
0.12 0.17 0.041774958
0.13 0.17 0.040426899
0.14 0.17 0.043392193
0.15000001 0.17 0.043788411
0.16 0.17 0.04426495
0.17 0.17 0.04715728
0.18000001 0.17 0.048208892
0.19 0.17 0.044361506
0.2 0.17 0.04943385
0.20999999 0.17 0.047399458
0.22 0.17 0.046294086
0.23 0.17 0.043029267
0.23999999 0.17 0.044906724
0.25 0.17 0.044270601
0.25999999 0.17 0.043377995
0.27000001 0.17 0.040828254
0.28 0.17 0.041852191
0.28999999 0.17 0.041199978
0.30000001 0.17 0.038377155
0.31 0.17 0.033013236
0.31999999 0.17 0.031484392
0.33000001 0.17 0.028715301
0.34 0.17 0.023491614
0.34999999 0.17 0.021284515
0.36000001 0.17 0.016432824
0.37 0.17 0.013779868
0.38 0.17 0.012609864
0.38999999 0.17 0.004471581
0.40000001 0.17 -0.0014615228
0.0099999998 0.18000001 0.0065917862
0 0.18000001 0.0027548771
0.02 0.18000001 0.0083389869
0.029999999 0.18000001 0.012168362
0.039999999 0.18000001 0.020434052
0.050000001 0.18000001 0.02137023
0.059999999 0.18000001 0.02510572
0.07 0.18000001 0.028600421
0.079999998 0.18000001 0.029555069
0.090000004 0.18000001 0.035652101
0.1 0.18000001 0.040596168
0.11 0.18000001 0.033088274
0.12 0.18000001 0.04039593
0.13 0.18000001 0.04359198
0.14 0.18000001 0.041578725
0.15000001 0.18000001 0.044589195
0.16 0.18000001 0.045762334
0.17 0.18000001 0.04500673
0.18000001 0.18000001 0.048179295
0.19 0.18000001 0.049531478
0.2 0.18000001 0.047660045
0.20999999 0.18000001 0.047841102
0.22 0.18000001 0.045673154
0.23 0.18000001 0.048443209
0.23999999 0.18000001 0.045240607
0.25 0.18000001 0.045291033
0.25999999 0.18000001 0.045519918
0.27000001 0.18000001 0.041106775
0.28 0.18000001 0.039611634
0.28999999 0.18000001 0.038245037
0.30000001 0.18000001 0.035443265
0.31 0.18000001 0.03093648
0.31999999 0.18000001 0.031777993
0.33000001 0.18000001 0.025018791
0.34 0.18000001 0.024126306
0.34999999 0.18000001 0.018490706
0.36000001 0.18000001 0.020215157
0.37 0.18000001 0.013813139
0.38 0.18000001 0.010347696
0.38999999 0.18000001 0.0043199756
0.40000001 0.18000001 0.0031736803
0.0099999998 0.19 0.0071490556
0 0.19 -0.00080796389
0.02 0.19 0.01169604
0.029999999 0.19 0.012591167
0.039999999 0.19 0.018470978
0.050000001 0.19 0.021560689
0.059999999 0.19 0.028965192
0.07 0.19 0.025913419
0.079999998 0.19 0.027644087
0.090000004 0.19 0.034096036
0.1 0.19 0.033950679
0.11 0.19 0.036885623
0.12 0.19 0.040662866
0.13 0.19 0.039105151
0.14 0.19 0.045313802
0.15000001 0.19 0.045252535
0.16 0.19 0.048265968
0.17 0.19 0.045582529
0.18000001 0.19 0.048592214
0.19 0.19 0.044863958
0.2 0.19 0.047695264
0.20999999 0.19 0.049348623
0.22 0.19 0.045469739
0.23 0.19 0.046380971
0.23999999 0.19 0.048690509
0.25 0.19 0.042840708
0.25999999 0.19 0.040949617
0.27000001 0.19 0.043568481
0.28 0.19 0.039953027
0.28999999 0.19 0.035862565
0.30000001 0.19 0.034102473
0.31 0.19 0.034166873
0.31999999 0.19 0.031302951
0.33000001 0.19 0.027198702
0.34 0.19 0.025193332
0.34999999 0.19 0.022436354
0.36000001 0.19 0.016150324
0.37 0.19 0.013002838
0.38 0.19 0.0079384763
0.38999999 0.19 0.0075254277
0.40000001 0.19 -0.0025573862
0.0099999998 0.2 0.0037061123
0 0.2 0.0032282013
0.02 0.2 0.0093857264
0.029999999 0.2 0.015557435
0.039999999 0.2 0.019087825
0.050000001 0.2 0.020624701
0.059999999 0.2 0.026512366
0.07 0.2 0.02554241
0.079999998 0.2 0.033576135
0.090000004 0.2 0.035795223
0.1 0.2 0.035926919
0.11 0.2 0.038871706
0.12 0.2 0.041959014
0.13 0.2 0.041045785
0.14 0.2 0.04426121
0.15000001 0.2 0.04578412
0.16 0.2 0.046165053
0.17 0.2 0.043365166
0.18000001 0.2 0.046094824
0.19 0.2 0.043149292
0.2 0.2 0.046447571
0.20999999 0.2 0.045522064
0.22 0.2 0.046574079
0.23 0.2 0.046961043
0.23999999 0.2 0.047081176
0.25 0.2 0.044123389
0.25999999 0.2 0.043250684
0.27000001 0.2 0.043727823
0.28 0.2 0.042593427
0.28999999 0.2 0.038499106
0.30000001 0.2 0.037612408
0.31 0.2 0.032014534
0.31999999 0.2 0.033984426
0.33000001 0.2 0.026576312
0.34 0.2 0.023200143
0.34999999 0.2 0.022383736
0.36000001 0.2 0.017481595
0.37 0.2 0.010469375
0.38 0.2 0.011544726
0.38999999 0.2 0.0062360605
0.40000001 0.2 0.0032952505
0.0099999998 0.20999999 0.006255615
0 0.20999999 0.00058968068
0.02 0.20999999 0.0070868889
0.029999999 0.20999999 0.017361287
0.039999999 0.20999999 0.022355178
0.050000001 0.20999999 0.020544849
0.059999999 0.20999999 0.023345649
0.07 0.20999999 0.029902078
0.079999998 0.20999999 0.028542627
0.090000004 0.20999999 0.033781555
0.1 0.20999999 0.035620257
0.11 0.20999999 0.039717183
0.12 0.20999999 0.036062308
0.13 0.20999999 0.041948132
0.14 0.20999999 0.043694228
0.15000001 0.20999999 0.04086753
0.16 0.20999999 0.045103468
0.17 0.20999999 0.047464583
0.18000001 0.20999999 0.044214617
0.19 0.20999999 0.0465017
0.2 0.20999999 0.047607295
0.20999999 0.20999999 0.04605661
0.22 0.20999999 0.04991252
0.23 0.20999999 0.047745101
0.23999999 0.20999999 0.044263631
0.25 0.20999999 0.045072965
0.25999999 0.20999999 0.04542803
0.27000001 0.20999999 0.042197693
0.28 0.20999999 0.041113846
0.28999999 0.20999999 0.039350204
0.30000001 0.20999999 0.037368186
0.31 0.20999999 0.030828847
0.31999999 0.20999999 0.029459598
0.33000001 0.20999999 0.027196081
0.34 0.20999999 0.021540355
0.34999999 0.20999999 0.018503718
0.36000001 0.20999999 0.018327551
0.37 0.20999999 0.014360176
0.38 0.20999999 0.011238988
0.38999999 0.20999999 0.0055768453
0.40000001 0.20999999 -0.0015335645
0.0099999998 0.22 0.0034126262
0 0.22 -3.144714e-05
0.02 0.22 0.011124105
0.029999999 0.22 0.010620457
0.039999999 0.22 0.019331153
0.050000001 0.22 0.022303682
0.059999999 0.22 0.0262814
0.07 0.22 0.026744621
0.079999998 0.22 0.031207448
0.090000004 0.22 0.033392269
0.1 0.22 0.032868195
0.11 0.22 0.039033491
0.12 0.22 0.040885191
0.13 0.22 0.040215045
0.14 0.22 0.045650456
0.15000001 0.22 0.040879477
0.16 0.22 0.044599161
0.17 0.22 0.045424569
0.18000001 0.22 0.045338724
0.19 0.22 0.04577389
0.2 0.22 0.04817969
0.20999999 0.22 0.045354187
0.22 0.22 0.046903919
0.23 0.22 0.045355987
0.23999999 0.22 0.045164425
0.25 0.22 0.04827442
0.25999999 0.22 0.042086679
0.27000001 0.22 0.043472297
0.28 0.22 0.040075738
0.28999999 0.22 0.038126882
0.30000001 0.22 0.032084674
0.31 0.22 0.035515882
0.31999999 0.22 0.031122232
0.33000001 0.22 0.027033824
0.34 0.22 0.024810066
0.34999999 0.22 0.021089474
0.36000001 0.22 0.021276306
0.37 0.22 0.011428665
0.38 0.22 0.0082667237
0.38999999 0.22 0.0053712614
0.40000001 0.22 0.0037083274
0.0099999998 0.23 0.0070679234
0 0.23 0.00051467243
0.02 0.23 0.010895029
0.029999999 0.23 0.015080249
0.039999999 0.23 0.020187339
0.050000001 0.23 0.025889948
0.059999999 0.23 0.025030382
0.07 0.23 0.027321817
0.079999998 0.23 0.031187613
0.090000004 0.23 0.032867972
0.1 0.23 0.031267207
0.11 0.23 0.037832022
0.12 0.23 0.040335678
0.13 0.23 0.04096866
0.14 0.23 0.04273665
0.15000001 0.23 0.046882197
0.16 0.23 0.045586187
0.17 0.23 0.046146434
0.18000001 0.23 0.045443468
0.19 0.23 0.045987289
0.2 0.23 0.047011789
0.20999999 0.23 0.04735763
0.22 0.23 0.047543377
0.23 0.23 0.049476717
0.23999999 0.23 0.048134279
0.25 0.23 0.042015329
0.25999999 0.23 0.046683572
0.27000001 0.23 0.039730258
0.28 0.23 0.045142423
0.28999999 0.23 0.038462497
0.30000001 0.23 0.035012439
0.31 0.23 0.029431729
0.31999999 0.23 0.030017223
0.33000001 0.23 0.030986147
0.34 0.23 0.023909891
0.34999999 0.23 0.020405848
0.36000001 0.23 0.01498624
0.37 0.23 0.011294515
0.38 0.23 0.0082324175
0.38999999 0.23 0.0055657099
0.40000001 0.23 -0.0041245688
0.0099999998 0.23999999 0.0038834231
0 0.23999999 0.0013347093
0.02 0.23999999 0.010998446
0.029999999 0.23999999 0.013633667
0.039999999 0.23999999 0.016726874
0.050000001 0.23999999 0.022313016
0.059999999 0.23999999 0.025745519
0.07 0.23999999 0.031952102
0.079999998 0.23999999 0.02821078
0.090000004 0.23999999 0.032070275
0.1 0.23999999 0.033443
0.11 0.23999999 0.036923673
0.12 0.23999999 0.038989212
0.13 0.23999999 0.040818401
0.14 0.23999999 0.042232543
0.15000001 0.23999999 0.043388948
0.16 0.23999999 0.044946887
0.17 0.23999999 0.047062702
0.18000001 0.23999999 0.04899358
0.19 0.23999999 0.046371862
0.2 0.23999999 0.050868455
0.20999999 0.23999999 0.048847292
0.22 0.23999999 0.049205497
0.23 0.23999999 0.044245828
0.23999999 0.23999999 0.041764773
0.25 0.23999999 0.045063611
0.25999999 0.23999999 0.043859053
0.27000001 0.23999999 0.038300734
0.28 0.23999999 0.037028253
0.28999999 0.23999999 0.038768046
0.30000001 0.23999999 0.037962794
0.31 0.23999999 0.03618703
0.31999999 0.23999999 0.028976658
0.33000001 0.23999999 0.029111102
0.34 0.23999999 0.025963701
0.34999999 0.23999999 0.021243338
0.36000001 0.23999999 0.015508519
0.37 0.23999999 0.011433404
0.38 0.23999999 0.010870826
0.38999999 0.23999999 0.0014815154
0.40000001 0.23999999 -0.00058986055
0.0099999998 0.25 0.0070315874
0 0.25 0.00028095033
0.02 0.25 0.0086714895
0.029999999 0.25 0.010857384
0.039999999 0.25 0.018308342
0.050000001 0.25 0.019868167
0.059999999 0.25 0.028290173
0.07 0.25 0.026165973
0.079999998 0.25 0.031155195
0.090000004 0.25 0.037559167
0.1 0.25 0.037998114
0.11 0.25 0.038030092
0.12 0.25 0.04095833
0.13 0.25 0.046506748
0.14 0.25 0.045971684
0.15000001 0.25 0.04175292
0.16 0.25 0.045790579
0.17 0.25 0.04833594
0.18000001 0.25 0.043696459
0.19 0.25 0.047679119
0.2 0.25 0.047077268
0.20999999 0.25 0.047678523
0.22 0.25 0.045156006
0.23 0.25 0.042552259
0.23999999 0.25 0.043276284
0.25 0.25 0.048159506
0.25999999 0.25 0.042910926
0.27000001 0.25 0.039798196
0.28 0.25 0.042935718
0.28999999 0.25 0.039901894
0.30000001 0.25 0.034164704
0.31 0.25 0.03562424
0.31999999 0.25 0.033033978
0.33000001 0.25 0.026354339
0.34 0.25 0.025814982
0.34999999 0.25 0.020566009
0.36000001 0.25 0.020113863
0.37 0.25 0.011118226
0.38 0.25 0.0085727219
0.38999999 0.25 0.0064872294
0.40000001 0.25 -0.00015906758
0.0099999998 0.25999999 0.0083207404
0 0.25999999 0.0011527862
0.02 0.25999999 0.0085370718
0.029999999 0.25999999 0.011450709
0.039999999 0.25999999 0.02073683
0.050000001 0.25999999 0.020432688
0.059999999 0.25999999 0.025371781
0.07 0.25999999 0.026737932
0.079999998 0.25999999 0.027675593
0.090000004 0.25999999 0.031579666
0.1 0.25999999 0.038514368
0.11 0.25999999 0.03723364
0.12 0.25999999 0.039699633
0.13 0.25999999 0.042301331
0.14 0.25999999 0.045524031
0.15000001 0.25999999 0.044714514
0.16 0.25999999 0.044904172
0.17 0.25999999 0.04450129
0.18000001 0.25999999 0.047931787
0.19 0.25999999 0.042925164
0.2 0.25999999 0.04486363
0.20999999 0.25999999 0.048574429
0.22 0.25999999 0.047659896
0.23 0.25999999 0.043652549
0.23999999 0.25999999 0.046495184
0.25 0.25999999 0.045348659
0.25999999 0.25999999 0.040801793
0.27000001 0.25999999 0.041557703
0.28 0.25999999 0.043204177
0.28999999 0.25999999 0.037076879
0.30000001 0.25999999 0.033194803
0.31 0.25999999 0.033791848
0.31999999 0.25999999 0.029692875
0.33000001 0.25999999 0.027184447
0.34 0.25999999 0.02555554
0.34999999 0.25999999 0.021197822
0.36000001 0.25999999 0.016849378
0.37 0.25999999 0.011578904
0.38 0.25999999 0.0077492869
0.38999999 0.25999999 0.0027986278
0.40000001 0.25999999 -0.0012103295
0.0099999998 0.27000001 0.0051409584
0 0.27000001 0.0035210452
0.02 0.27000001 0.0082910806
0.029999999 0.27000001 0.013386629
0.039999999 0.27000001 0.018102916
0.050000001 0.27000001 0.021859637
0.059999999 0.27000001 0.025372647
0.07 0.27000001 0.030082937
0.079999998 0.27000001 0.030125421
0.090000004 0.27000001 0.034184568
0.1 0.27000001 0.034652665
0.11 0.27000001 0.034346022
0.12 0.27000001 0.038856126
0.13 0.27000001 0.044537213
0.14 0.27000001 0.042461205
0.15000001 0.27000001 0.04645348
0.16 0.27000001 0.046624787
0.17 0.27000001 0.045011729
0.18000001 0.27000001 0.05059287
0.19 0.27000001 0.04884864
0.2 0.27000001 0.049018748
0.20999999 0.27000001 0.045282509
0.22 0.27000001 0.045472007
0.23 0.27000001 0.047499117
0.23999999 0.27000001 0.047820654
0.25 0.27000001 0.044356961
0.25999999 0.27000001 0.046594266
0.27000001 0.27000001 0.041445658
0.28 0.27000001 0.04143611
0.28999999 0.27000001 0.038070656
0.30000001 0.27000001 0.038077798
0.31 0.27000001 0.032820176
0.31999999 0.27000001 0.030750414
0.33000001 0.27000001 0.024885228
0.34 0.27000001 0.025339721
0.34999999 0.27000001 0.02148696
0.36000001 0.27000001 0.01866845
0.37 0.27000001 0.014318757
0.38 0.27000001 0.0080511197
0.38999999 0.27000001 0.0061737257
0.40000001 0.27000001 0.005220315
0.0099999998 0.28 0.0067102201
0 0.28 -0.0012829279
0.02 0.28 0.0082342569
0.029999999 0.28 0.011825506
0.039999999 0.28 0.015366636
0.050000001 0.28 0.022458224
0.059999999 0.28 0.024801699
0.07 0.28 0.029649256
0.079999998 0.28 0.030433157
0.090000004 0.28 0.031123612
0.1 0.28 0.035493199
0.11 0.28 0.037916388
0.12 0.28 0.0412248
0.13 0.28 0.039280389
0.14 0.28 0.03948414
0.15000001 0.28 0.045327403
0.16 0.28 0.043868057
0.17 0.28 0.045224685
0.18000001 0.28 0.047866922
0.19 0.28 0.047138441
0.2 0.28 0.047543444
0.20999999 0.28 0.049470384
0.22 0.28 0.04889797
0.23 0.28 0.046213415
0.23999999 0.28 0.044357806
0.25 0.28 0.042022146
0.25999999 0.28 0.043801926
0.27000001 0.28 0.046327412
0.28 0.28 0.042094156
0.28999999 0.28 0.038513836
0.30000001 0.28 0.033694115
0.31 0.28 0.031022614
0.31999999 0.28 0.029753136
0.33000001 0.28 0.020417495
0.34 0.28 0.025569988
0.34999999 0.28 0.023794478
0.36000001 0.28 0.017833428
0.37 0.28 0.01298819
0.38 0.28 0.012095582
0.38999999 0.28 0.003990164
0.40000001 0.28 -0.0011587463
0.0099999998 0.28999999 0.0048566703
0 0.28999999 0.0018519368
0.02 0.28999999 0.0081208078
0.029999999 0.28999999 0.015359011
0.039999999 0.28999999 0.016650708
0.050000001 0.28999999 0.024286903
0.059999999 0.28999999 0.023476429
0.07 0.28999999 0.026713956
0.079999998 0.28999999 0.029555796
0.090000004 0.28999999 0.03418684
0.1 0.28999999 0.038500067
0.11 0.28999999 0.03879527
0.12 0.28999999 0.041544154
0.13 0.28999999 0.044211909
0.14 0.28999999 0.042913727
0.15000001 0.28999999 0.046306968
0.16 0.28999999 0.045172151
0.17 0.28999999 0.050406113
0.18000001 0.28999999 0.047286723
0.19 0.28999999 0.046010818
0.2 0.28999999 0.047414459
0.20999999 0.28999999 0.045635968
0.22 0.28999999 0.043717843
0.23 0.28999999 0.04690579
0.23999999 0.28999999 0.045886867
0.25 0.28999999 0.045717724
0.25999999 0.28999999 0.041480485
0.27000001 0.28999999 0.040091027
0.28 0.28999999 0.039018497
0.28999999 0.28999999 0.036052503
0.30000001 0.28999999 0.041272603
0.31 0.28999999 0.034217402
0.31999999 0.28999999 0.029506931
0.33000001 0.28999999 0.028750503
0.34 0.28999999 0.027194269
0.34999999 0.28999999 0.022662682
0.36000001 0.28999999 0.019445559
0.37 0.28999999 0.014603849
0.38 0.28999999 0.0063755
0.38999999 0.28999999 0.003325863
0.40000001 0.28999999 0.0021196855
0.0099999998 0.30000001 0.0053640525
0 0.30000001 -0.0003961699
0.02 0.30000001 0.010499639
0.029999999 0.30000001 0.011599515
0.039999999 0.30000001 0.017992485
0.050000001 0.30000001 0.020437911
0.059999999 0.30000001 0.021786878
0.07 0.30000001 0.028688325
0.079999998 0.30000001 0.029125022
0.090000004 0.30000001 0.032468665
0.1 0.30000001 0.033211455
0.11 0.30000001 0.036857996
0.12 0.30000001 0.040879063
0.13 0.30000001 0.04484427
0.14 0.30000001 0.040907297
0.15000001 0.30000001 0.045100357
0.16 0.30000001 0.046467923
0.17 0.30000001 0.048294157
0.18000001 0.30000001 0.049285896
0.19 0.30000001 0.04489002
0.2 0.30000001 0.04733634
0.20999999 0.30000001 0.049563166
0.22 0.30000001 0.047856368
0.23 0.30000001 0.049006183
0.23999999 0.30000001 0.047854125
0.25 0.30000001 0.049097322
0.25999999 0.30000001 0.037930351
0.27000001 0.30000001 0.041037556
0.28 0.30000001 0.039322734
0.28999999 0.30000001 0.035216678
0.30000001 0.30000001 0.03484742
0.31 0.30000001 0.036318801
0.31999999 0.30000001 0.030931771
0.33000001 0.30000001 0.029823028
0.34 0.30000001 0.028005026
0.34999999 0.30000001 0.020726951
0.36000001 0.30000001 0.016793026
0.37 0.30000001 0.011008118
0.38 0.30000001 0.0088351965
0.38999999 0.30000001 0.0034162642
0.40000001 0.30000001 -0.00043857086
