# .PCD v0.7 - Point Cloud Data file format
VERSION 0.7
FIELDS x y z
SIZE 4 4 4
TYPE F F F
COUNT 1 1 1
WIDTH 493
HEIGHT 1
VIEWPOINT 0 0 0 1 0 0 0
POINTS 493
DATA ascii
0.029999999 0 -0.0008769983
0.029999999 0.0099999998 0.00032287175
0.039999999 0 0.00068644137
0.050000001 0 -0.00011680676
0.050000001 0.0099999998 0.00090098748
0.059999999 0.0099999998 -0.00054559612
0.07 0 0.00087729085
0.07 0.0099999998 -0.0002029087
0.079999998 0 0.00087503542
0.1 0.0099999998 0.00082027511
0.12 0 -0.00039452757
0.12 0.0099999998 0.00032327426
0.18000001 0.0099999998 0.00079548085
0.19 0 0.00022030967
0.20999999 0 -0.00079507142
0.22 0 0.00050858862
0.23 0.0099999998 0.00090868637
0.23999999 0.0099999998 -8.4208361e-05
0.25 0.0099999998 0.00091633463
0.25999999 0.0099999998 -0.00052828825
0.27000001 0 -0.00099069427
0.27000001 0.0099999998 -0.00058397028
0.28 0 0.00093753106
0.28 0.0099999998 -0.00077359629
0.31 0.0099999998 -0.00011969636
0.34 0 0.00022677476
0.34 0.0099999998 0.00047105347
0.34999999 0 -0.0004596143
0.36000001 0.0099999998 -0.00027966106
0.37 0.0099999998 -0.0001631022
0.38 0 -9.4935218e-05
0.38999999 0 -0.0009249319
0.40000001 0.0099999998 6.5881715e-05
0.0099999998 0.02 0.00095145713
0.02 0.02 0.00073706044
0.059999999 0.02 0.00080451916
0.079999998 0.02 -0.00023043097
0.12 0.02 -0.00037760646
0.13 0.02 0.00029655008
0.18000001 0.02 -0.00051857391
0.20999999 0.02 0.00074702484
0.22 0.02 -0.00050178356
0.23999999 0.02 0.00019732065
0.25999999 0.02 0.0005505188
0.27000001 0.02 0.00070657878
0.28999999 0.02 0.00033225736
0.36000001 0.02 -0.00014519734
0.38 0.02 -0.0001633283
0.38999999 0.02 -0.00031694659
0.40000001 0.02 1.2996073e-05
0.029999999 0.029999999 0.00058522826
0.07 0.029999999 -0.00024354046
0.1 0.029999999 -0.00069894159
0.11 0.029999999 5.9263912e-05
0.13 0.029999999 0.00091804704
0.14 0.029999999 -0.00079862383
0.15000001 0.029999999 -0.00045076929
0.16 0.029999999 -0.00056056591
0.18000001 0.029999999 -0.00056875026
0.2 0.029999999 0.00048123777
0.20999999 0.029999999 -0.00018929197
0.28999999 0.029999999 -0.0006946185
0.31999999 0.029999999 4.3062435e-05
0.33000001 0.029999999 -0.00059868069
0.34999999 0.029999999 0.00036686374
0.36000001 0.029999999 -0.00051946461
0.40000001 0.029999999 -0.00050059916
0.0099999998 0.039999999 -0.00036398123
0.029999999 0.039999999 -0.00075334852
0.050000001 0.039999999 0.00060824485
0.07 0.039999999 -0.00089321594
0.079999998 0.039999999 -0.00093342451
0.12 0.039999999 -0.00022730905
0.15000001 0.039999999 0.00075156736
0.19 0.039999999 0.00085194601
0.2 0.039999999 -8.5861939e-05
0.23 0.039999999 0.00065170263
0.25 0.039999999 0.00093636865
0.25999999 0.039999999 0.00064522575
0.27000001 0.039999999 0.00020004288
0.28 0.039999999 0.00060286914
0.28999999 0.039999999 4.7647274e-05
0.30000001 0.039999999 -4.4109467e-05
0.31 0.039999999 -1.7515857e-05
0.33000001 0.039999999 -0.00018086462
0.34999999 0.039999999 -0.00097230001
0.36000001 0.039999999 0.00039193925
0.0099999998 0.050000001 -0.00041674692
0 0.050000001 0.0004758409
0.02 0.050000001 4.94784e-05
0.029999999 0.050000001 -5.6182209e-05
0.039999999 0.050000001 0.00028071826
0.050000001 0.050000001 0.00047517236
0.090000004 0.050000001 -0.00043951304
0.16 0.050000001 0.00041302445
0.22 0.050000001 0.0004546929
0.23 0.050000001 -0.00045115227
0.25 0.050000001 0.00019003572
0.25999999 0.050000001 -0.00051346503
0.28 0.050000001 0.00038011945
0.28999999 0.050000001 -0.000346808
0.30000001 0.050000001 -2.8057646e-05
0.34 0.050000001 0.00014978787
0.36000001 0.050000001 -6.6255874e-05
0.37 0.050000001 -0.00019549541
0.0099999998 0.059999999 0.00017386695
0.029999999 0.059999999 4.7267709e-05
0.039999999 0.059999999 0.00058008562
0.059999999 0.059999999 0.00095054711
0.1 0.059999999 0.00070244796
0.12 0.059999999 -0.00079625432
0.13 0.059999999 0.00051287177
0.14 0.059999999 0.00044005091
0.18000001 0.059999999 -0.00014498328
0.25999999 0.059999999 -7.4099182e-05
0.31 0.059999999 0.00011104167
0.31999999 0.059999999 -0.00070625066
0.36000001 0.059999999 0.00078545278
0.38 0.059999999 0.00029789086
0.0099999998 0.07 0.00069596828
0.079999998 0.07 3.5776364e-05
0.12 0.07 -0.00033975532
0.13 0.07 -0.00094334496
0.14 0.07 -0.00022846698
0.15000001 0.07 0.00073897379
0.18000001 0.07 0.00085339212
0.19 0.07 -0.0009446615
0.2 0.07 0.00055190356
0.23999999 0.07 -0.00012999684
0.25999999 0.07 0.00044820854
0.27000001 0.07 -0.00093227241
0.28 0.07 -0.00066417374
0.34 0.07 4.5375149e-05
0.34999999 0.07 0.00019056963
0.38 0.07 -0.00064768043
0 0.079999998 0.00036525022
0.039999999 0.079999998 0.00021897927
0.059999999 0.079999998 -0.00071022182
0.11 0.079999998 -0.00049291021
0.13 0.079999998 -0.00099180453
0.14 0.079999998 0.00074898958
0.17 0.079999998 0.00055892998
0.2 0.079999998 -0.00064748869
0.23999999 0.079999998 -0.00028586126
0.25999999 0.079999998 0.00049783441
0.28 0.079999998 0.00013218923
0.31999999 0.079999998 6.0698021e-05
0.34999999 0.079999998 0.00048053009
0.0099999998 0.090000004 1.7418552e-05
0.02 0.090000004 0.00066854665
0.07 0.090000004 -0.00065958232
0.079999998 0.090000004 0.0003367076
0.12 0.090000004 -0.00094826944
0.16 0.090000004 -0.00063047919
0.22 0.090000004 -0.00061953528
0.25 0.090000004 0.00068421784
0.28999999 0.090000004 -2.3532592e-05
0.31999999 0.090000004 -0.00083980482
0.34 0.090000004 -0.00032550539
0.34999999 0.090000004 0.00020315328
0.36000001 0.090000004 -3.5716923e-05
0.38999999 0.090000004 -0.00073054538
0.40000001 0.090000004 -0.00092682132
0.0099999998 0.1 -0.000133893
0 0.1 0.00038997913
0.029999999 0.1 0.00025419952
0.079999998 0.1 -0.00047779578
0.11 0.1 0.00040853495
0.13 0.1 0.00024121963
0.16 0.1 -0.00036293094
0.17 0.1 8.4019564e-05
0.18000001 0.1 0.00072368392
0.22 0.1 -0.00020779247
0.23999999 0.1 0.00084996282
0.27000001 0.1 0.00061278732
0.28999999 0.1 -0.00063448143
0.31999999 0.1 -0.00070217886
0.34999999 0.1 0.00041378094
0.36000001 0.1 -0.00041499449
0.37 0.1 0.00068051409
0.38 0.1 -0.00099622423
0.40000001 0.1 -0.0005415483
0 0.11 0.00087932619
0.02 0.11 -0.00036869646
0.029999999 0.11 0.00080399803
0.059999999 0.11 -0.00053674396
0.079999998 0.11 0.00066152104
0.14 0.11 -0.00021926472
0.15000001 0.11 -0.00020542422
0.16 0.11 -0.0006454332
0.20999999 0.11 -0.00071798323
0.22 0.11 -0.00022975866
0.23 0.11 0.00071780226
0.23999999 0.11 -2.4274708e-05
0.30000001 0.11 -0.00064666866
0.31999999 0.11 0.00023583078
0.34999999 0.11 0.00032648983
0.37 0.11 0.00080742018
0.40000001 0.11 -0.00018756509
0 0.12 -0.00058841216
0.050000001 0.12 -0.00053967501
0.059999999 0.12 -0.00055006414
0.12 0.12 -1.7436185e-05
0.13 0.12 0.00046670536
0.14 0.12 -0.00084839138
0.17 0.12 0.00039468444
0.2 0.12 0.00073434087
0.25 0.12 0.00030308895
0.25999999 0.12 0.00082252815
0.27000001 0.12 0.00014099557
0.33000001 0.12 -0.00078779517
0.34999999 0.12 0.00050041173
0.36000001 0.12 0.00050424959
0.07 0.13 -0.00012334441
0.11 0.13 -0.00086375658
0.13 0.13 0.00035936022
0.15000001 0.13 0.00011197189
0.18000001 0.13 5.343054e-06
0.19 0.13 -0.00091907359
0.20999999 0.13 0.00074784335
0.22 0.13 0.00049036101
0.23 0.13 0.00067715842
0.28999999 0.13 -0.00039342267
0.31999999 0.13 -2.45305e-05
0.33000001 0.13 0.00014562896
0.38 0.13 0.00043985929
0.40000001 0.13 0.00069998822
0.050000001 0.14 -0.00024355749
0.07 0.14 -0.00015789994
0.1 0.14 -0.0005722096
0.11 0.14 -0.00045521132
0.14 0.14 -0.00029892504
0.15000001 0.14 -0.00063416269
0.18000001 0.14 0.0009763696
0.2 0.14 6.3401516e-05
0.20999999 0.14 0.00068254984
0.22 0.14 -0.00016706198
0.27000001 0.14 0.00017057614
0.28 0.14 -0.00013664945
0.30000001 0.14 -0.00094714813
0.31999999 0.14 -0.00010744009
0.34999999 0.14 0.00031168311
0.36000001 0.14 0.00010986536
0.38999999 0.14 0.00065930811
0.0099999998 0.15000001 0.00051688158
0.079999998 0.15000001 -2.3398834e-05
0.1 0.15000001 2.998434e-06
0.12 0.15000001 0.00023029507
0.13 0.15000001 0.00041413732
0.14 0.15000001 -0.00088912359
0.16 0.15000001 0.00087071594
0.17 0.15000001 3.4177268e-05
0.18000001 0.15000001 -0.00072597124
0.23999999 0.15000001 -0.00048291573
0.25999999 0.15000001 -0.00097648177
0.34999999 0.15000001 0.00083460478
0.40000001 0.15000001 0.0001002481
0.039999999 0.16 -0.00070850999
0.059999999 0.16 0.00011294663
0.12 0.16 -0.00021583703
0.19 0.16 0.00059067592
0.20999999 0.16 -2.3691613e-05
0.25999999 0.16 0.00041131309
0.27000001 0.16 -0.00069241982
0.28999999 0.16 0.00067165267
0.30000001 0.16 0.00066448614
0.31999999 0.16 0.00027372586
0.34 0.16 0.00048617597
0.37 0.16 2.1306321e-05
0.38 0.16 0.00024866738
0.40000001 0.16 -0.00047894454
0.079999998 0.17 0.00034385134
0.090000004 0.17 -9.4948176e-05
0.13 0.17 0.00071297825
0.15000001 0.17 -0.00059910206
0.20999999 0.17 0.00091632665
0.23 0.17 0.00050257915
0.23999999 0.17 -0.00035700778
0.25999999 0.17 -0.00061979826
0.27000001 0.17 -0.00078874046
0.28 0.17 -0.0005394771
0.28999999 0.17 -0.00017626035
0.30000001 0.17 1.605855e-05
0.34 0.17 0.00049211731
0.34999999 0.17 -0.00010122295
0.37 0.17 0.00065397425
0.40000001 0.17 -0.00081573409
0.0099999998 0.18000001 0.00016715538
0.02 0.18000001 0.00032759859
0.050000001 0.18000001 0.00059498474
0.059999999 0.18000001 -0.0002866165
0.079999998 0.18000001 0.00061349472
0.1 0.18000001 -0.00045786449
0.15000001 0.18000001 -0.00040248604
0.18000001 0.18000001 0.00032816874
0.20999999 0.18000001 0.00051807263
0.23999999 0.18000001 -0.00068867946
0.28999999 0.18000001 -0.00041031098
0.31 0.18000001 -0.00058588618
0.33000001 0.18000001 0.00075479015
0.02 0.19 -0.00040727219
0.029999999 0.19 3.5826135e-05
0.039999999 0.19 0.00020070288
0.079999998 0.19 0.00035706078
0.1 0.19 -0.00065019488
0.11 0.19 0.00020229566
0.13 0.19 -0.00012305622
0.16 0.19 0.0003818612
0.22 0.19 -0.00029884011
0.25 0.19 -0.00017384338
0.25999999 0.19 0.0006147722
0.27000001 0.19 0.00067509123
0.28999999 0.19 0.00066588307
0.30000001 0.19 -0.0001469673
0.33000001 0.19 5.3386699e-05
0.34 0.19 -0.00048104857
0.38 0.19 -0.00021297582
0.38999999 0.19 0.00049052789
0.40000001 0.19 0.00029158607
0.039999999 0.2 -0.00026160109
0.07 0.2 -0.0003850011
0.090000004 0.2 0.00072587654
0.12 0.2 -3.3834942e-05
0.13 0.2 -0.00088332838
0.15000001 0.2 -6.1138438e-05
0.16 0.2 0.0004078355
0.25 0.2 0.00081157807
0.28 0.2 -0.00018212682
0.28999999 0.2 -4.9360093e-05
0.30000001 0.2 0.00039987208
0.34 0.2 0.00021483276
0.34999999 0.2 0.00087781885
0.36000001 0.2 -8.1986815e-05
0.37 0.2 0.00072861835
0.40000001 0.2 -0.00074927526
0.0099999998 0.20999999 -0.00062045723
0.050000001 0.20999999 8.0946229e-05
0.059999999 0.20999999 -0.00050946046
0.1 0.20999999 -0.00037812264
0.11 0.20999999 0.00017314528
0.15000001 0.20999999 -0.00065169489
0.2 0.20999999 -0.00071047357
0.22 0.20999999 0.00031856331
0.23 0.20999999 0.00048988359
0.25 0.20999999 0.00046925584
0.28 0.20999999 0.00095268368
0.28999999 0.20999999 -0.00017677937
0.30000001 0.20999999 -0.00082607125
0.31999999 0.20999999 -4.8013371e-05
0.1 0.22 -0.00090702157
0.12 0.22 3.1949596e-05
0.14 0.22 -0.0004987478
0.15000001 0.22 0.00099140324
0.16 0.22 0.00032407499
0.18000001 0.22 -0.00031663117
0.19 0.22 0.00058594206
0.25 0.22 1.9813921e-05
0.25999999 0.22 0.00057873368
0.28 0.22 -0.00079452357
0.34 0.22 -0.00058789691
0.34999999 0.22 -7.6355624e-05
0.40000001 0.22 -0.00015500034
0.0099999998 0.23 0.00021371088
0 0.23 1.0208946e-06
0.02 0.23 -0.00062492909
0.050000001 0.23 0.00040795328
0.07 0.23 0.00075039914
0.090000004 0.23 0.00024110998
0.1 0.23 -0.00063479209
0.13 0.23 -0.00039533532
0.16 0.23 0.00024239786
0.19 0.23 0.00038579499
0.20999999 0.23 -0.00079969794
0.27000001 0.23 0.00065057306
0.28999999 0.23 0.00044031718
0.31999999 0.23 -0.00082342193
0.33000001 0.23 -0.00092213019
0.34999999 0.23 -0.00017500036
0.36000001 0.23 0.00071089197
0.38 0.23 0.00014406137
0.38999999 0.23 -0.00071280671
0.40000001 0.23 -0.00086338358
0.039999999 0.23999999 -0.00027224454
0.079999998 0.23999999 0.00046650349
0.11 0.23999999 0.00075427309
0.12 0.23999999 0.00021851067
0.17 0.23999999 0.00090505555
0.22 0.23999999 -0.00025100177
0.25 0.23999999 -0.00025944316
0.27000001 0.23999999 0.00050457404
0.34 0.23999999 0.00065034803
0.34999999 0.23999999 -0.00085782609
0.36000001 0.23999999 2.3192177e-05
0.0099999998 0.25 0.00038242229
0 0.25 -9.0300688e-05
0.039999999 0.25 -0.00077742548
0.059999999 0.25 -0.00047944064
0.07 0.25 -0.00090324553
0.1 0.25 4.4241784e-05
0.14 0.25 -0.00061807735
0.15000001 0.25 -0.00073520816
0.16 0.25 0.00073126674
0.2 0.25 -9.2929484e-05
0.22 0.25 -0.00094249804
0.25999999 0.25 0.00035405421
0.27000001 0.25 -0.00024895507
0.28 0.25 -0.0008311097
0.31 0.25 0.00075183396
0.31999999 0.25 -0.00055390765
0.33000001 0.25 0.00070019707
0.34 0.25 -0.00058261433
0.34999999 0.25 0.00037215612
0.37 0.25 0.00067931454
0.0099999998 0.25999999 -5.2107898e-05
0.050000001 0.25999999 0.00089200924
0.079999998 0.25999999 -0.00032032537
0.090000004 0.25999999 -0.00022767624
0.11 0.25999999 -0.00034159762
0.12 0.25999999 0.00060233707
0.13 0.25999999 0.00065197737
0.15000001 0.25999999 0.00043058247
0.16 0.25999999 0.00073249859
0.17 0.25999999 0.00064430182
0.31 0.25999999 0.00068528898
0.31999999 0.25999999 0.00035912296
0.34 0.25999999 7.5198928e-05
0.34999999 0.25999999 0.00027424662
0.37 0.25999999 -3.7836908e-05
0.38 0.25999999 0.00032649335
0.40000001 0.25999999 0.00082120672
0.02 0.27000001 0.00021078439
0.039999999 0.27000001 0.00084358925
0.050000001 0.27000001 -0.00072561787
0.13 0.27000001 6.7381065e-05
0.14 0.27000001 -0.00090054004
0.15000001 0.27000001 -0.00022131256
0.20999999 0.27000001 -0.00099107239
0.22 0.27000001 -0.00041363543
0.23 0.27000001 -0.00031159233
0.23999999 0.27000001 -0.00055079616
0.25999999 0.27000001 -0.00085464568
0.27000001 0.27000001 0.00061812077
0.31 0.27000001 -0.00077094568
0.34999999 0.27000001 -0.00022483527
0.38 0.27000001 0.00011481578
0 0.28 0.00024370739
0.02 0.28 0.00048825116
0.039999999 0.28 -0.00019094667
0.050000001 0.28 0.00077524548
0.079999998 0.28 0.0008076615
0.090000004 0.28 -0.00084428256
0.13 0.28 -0.00098511495
0.14 0.28 0.00069361663
0.16 0.28 0.00031126512
0.17 0.28 0.00016742773
0.18000001 0.28 0.00074923359
0.2 0.28 0.00066542794
0.20999999 0.28 0.00028154167
0.23 0.28 0.00017909548
0.25999999 0.28 -0.00071578077
0.27000001 0.28 0.00040420331
0.34 0.28 0.00047014569
0.34999999 0.28 -0.00030350557
0.36000001 0.28 -0.00031177723
0.38 0.28 0.00066096761
0.38999999 0.28 0.00095161324
0.0099999998 0.28999999 3.8376347e-05
0 0.28999999 -0.00034806965
0.029999999 0.28999999 -4.5898883e-05
0.079999998 0.28999999 -8.5288455e-05
0.11 0.28999999 0.00013365476
0.16 0.28999999 -0.00013078318
0.17 0.28999999 -0.00065367267
0.23999999 0.28999999 3.392259e-06
0.25 0.28999999 0.00075936777
0.27000001 0.28999999 -0.00039358868
0.28 0.28999999 0.00061388302
0.28999999 0.28999999 0.00033491335
0.31999999 0.28999999 -0.00029992184
0.36000001 0.28999999 -0.00078375731
0.38 0.28999999 -3.2041979e-05
0.40000001 0.28999999 0.00088965928
0.0099999998 0.30000001 0.000895362
0.02 0.30000001 0.00063088047
0.039999999 0.30000001 0.0008573262
0.059999999 0.30000001 0.00021964304
0.11 0.30000001 0.00018852149
0.12 0.30000001 -7.6439603e-05
0.14 0.30000001 0.00011092137
0.19 0.30000001 0.00050186075
0.2 0.30000001 -0.00078549492
0.23999999 0.30000001 -0.00084801682
0.31 0.30000001 0.0001985947
